ply
format ascii 1.0
element vertex 1693
property float x
property float y
property float z
property uchar red
property uchar green
property uchar blue
end_header
107.0 159.0 438.0 116 82 61
107.0 159.0 438.0 118 84 64
108.0 159.0 438.0 116 82 62
109.0 159.0 438.0 116 82 62
110.0 159.0 439.0 115 81 61
110.0 159.0 439.0 113 79 59
111.0 159.0 439.0 112 78 58
112.0 159.0 439.0 111 77 57
112.0 159.0 439.0 111 77 56
113.0 159.0 440.0 111 79 56
114.0 159.0 440.0 113 81 58
115.0 159.0 439.0 113 81 58
115.0 159.0 439.0 112 80 57
116.0 159.0 440.0 111 79 56
117.0 159.0 440.0 112 80 57
118.0 159.0 440.0 112 80 57
119.0 160.0 441.0 113 81 58
119.0 159.0 439.0 114 82 59
119.0 159.0 439.0 112 81 58
120.0 159.0 439.0 113 83 60
121.0 159.0 439.0 113 83 60
121.0 159.0 438.0 113 83 60
122.0 159.0 438.0 113 83 60
123.0 159.0 438.0 110 80 57
124.0 159.0 439.0 109 79 56
124.0 159.0 439.0 111 81 58
125.0 159.0 439.0 111 81 58
126.0 159.0 438.0 111 81 58
126.0 159.0 438.0 113 83 61
127.0 159.0 439.0 114 84 63
128.0 159.0 439.0 113 83 62
129.0 159.0 440.0 114 84 63
130.0 159.0 440.0 115 85 64
130.0 159.0 440.0 115 85 64
131.0 159.0 440.0 115 85 64
132.0 159.0 440.0 114 84 63
132.0 159.0 440.0 113 83 62
133.0 160.0 441.0 113 83 62
134.0 160.0 442.0 113 83 62
135.0 160.0 442.0 113 83 62
136.0 160.0 442.0 112 82 61
137.0 160.0 442.0 112 82 61
137.0 160.0 442.0 113 83 62
138.0 160.0 443.0 113 83 62
139.0 160.0 443.0 113 83 62
140.0 160.0 443.0 113 83 62
140.0 160.0 443.0 112 82 61
141.0 161.0 444.0 110 80 59
142.0 161.0 444.0 110 80 59
143.0 161.0 444.0 112 82 61
144.0 161.0 445.0 111 81 60
145.0 161.0 445.0 111 81 60
145.0 161.0 445.0 111 82 60
146.0 161.0 445.0 111 83 59
146.0 161.0 444.0 111 83 59
147.0 161.0 444.0 112 84 60
148.0 161.0 444.0 113 85 61
148.0 161.0 444.0 114 86 62
149.0 160.0 444.0 112 84 60
150.0 161.0 445.0 111 83 59
151.0 161.0 445.0 111 83 59
152.0 161.0 445.0 112 84 60
152.0 161.0 445.0 113 85 61
153.0 161.0 446.0 114 86 62
154.0 161.0 445.0 114 86 62
154.0 161.0 445.0 114 86 62
155.0 161.0 445.0 113 85 61
156.0 161.0 445.0 113 85 61
157.0 161.0 446.0 114 86 62
158.0 161.0 446.0 115 87 63
158.0 161.0 446.0 115 87 63
159.0 161.0 447.0 114 86 62
160.0 162.0 448.0 112 84 60
161.0 162.0 448.0 115 85 62
162.0 162.0 449.0 116 88 64
163.0 162.0 449.0 117 89 65
164.0 162.0 449.0 117 89 65
164.0 162.0 449.0 117 89 65
-206.0 141.0 392.0 123 89 71
-206.0 142.0 394.0 124 90 74
-206.0 142.0 395.0 124 90 73
-205.0 142.0 395.0 123 90 72
-205.0 142.0 395.0 124 90 69
-205.0 143.0 396.0 123 90 65
-204.0 142.0 395.0 123 89 67
-203.0 143.0 396.0 123 89 69
-203.0 143.0 396.0 122 88 67
-202.0 143.0 396.0 123 89 67
-202.0 143.0 396.0 124 90 68
-201.0 143.0 396.0 123 89 67
-200.0 143.0 396.0 123 89 67
-200.0 143.0 396.0 122 88 66
-200.0 143.0 397.0 121 87 65
-199.0 143.0 397.0 121 87 65
-198.0 143.0 397.0 122 88 66
-198.0 143.0 398.0 122 88 66
-198.0 143.0 398.0 122 88 66
-198.0 144.0 399.0 121 87 65
-197.0 144.0 399.0 120 86 64
-196.0 144.0 399.0 120 86 64
-196.0 144.0 399.0 121 87 65
-195.0 143.0 398.0 121 87 65
-194.0 143.0 398.0 122 89 66
-193.0 143.0 398.0 120 88 65
-193.0 143.0 398.0 121 89 66
-192.0 144.0 398.0 121 89 66
-191.0 144.0 398.0 121 88 65
-191.0 144.0 398.0 119 85 63
-191.0 144.0 399.0 120 86 64
-190.0 144.0 399.0 121 87 65
-189.0 144.0 399.0 122 88 66
-189.0 144.0 399.0 121 87 65
-188.0 144.0 399.0 121 87 65
-188.0 144.0 399.0 122 88 66
-187.0 144.0 400.0 124 89 67
-186.0 144.0 399.0 124 88 66
-186.0 144.0 399.0 123 87 65
-185.0 144.0 399.0 122 86 64
-184.0 144.0 399.0 120 85 63
-184.0 144.0 400.0 119 85 63
-183.0 144.0 399.0 118 84 62
-183.0 144.0 399.0 118 84 62
-182.0 144.0 399.0 118 84 62
-181.0 144.0 399.0 117 83 61
-181.0 144.0 400.0 116 82 60
-181.0 144.0 400.0 116 82 60
-179.0 144.0 399.0 117 83 61
-179.0 144.0 400.0 117 83 61
-179.0 145.0 401.0 118 84 62
-178.0 145.0 401.0 118 84 62
-178.0 145.0 401.0 119 85 63
-177.0 145.0 401.0 120 86 64
-177.0 145.0 401.0 120 86 64
-176.0 145.0 401.0 119 85 63
-175.0 145.0 401.0 118 85 62
-174.0 145.0 400.0 115 83 60
-174.0 145.0 400.0 115 83 60
-173.0 145.0 400.0 115 83 60
-172.0 145.0 400.0 116 84 61
-172.0 145.0 401.0 117 85 62
-172.0 145.0 401.0 116 84 62
-171.0 145.0 401.0 116 84 63
-170.0 145.0 401.0 117 85 64
-170.0 145.0 401.0 117 85 64
-169.0 145.0 401.0 116 85 64
-168.0 145.0 401.0 115 85 64
-168.0 145.0 401.0 114 84 63
-168.0 145.0 402.0 112 82 61
-167.0 145.0 402.0 110 80 59
-166.0 145.0 402.0 109 79 58
-166.0 145.0 402.0 108 79 58
-165.0 145.0 402.0 110 82 60
-164.0 145.0 402.0 110 81 60
-164.0 145.0 402.0 111 81 60
-163.0 145.0 402.0 111 81 60
-162.0 145.0 402.0 110 80 59
-162.0 145.0 402.0 110 80 59
-161.0 145.0 402.0 110 80 59
-160.0 145.0 401.0 111 81 60
-160.0 145.0 401.0 110 80 59
-159.0 145.0 401.0 112 81 60
-158.0 145.0 400.0 114 82 61
-158.0 145.0 401.0 115 83 62
-157.0 145.0 401.0 115 83 62
-156.0 145.0 401.0 116 84 63
-156.0 145.0 401.0 116 84 63
-156.0 146.0 402.0 116 82 62
-155.0 146.0 402.0 116 82 62
-155.0 146.0 403.0 115 81 61
-154.0 146.0 403.0 114 80 60
-153.0 146.0 403.0 115 81 61
-153.0 146.0 403.0 115 81 61
-152.0 146.0 403.0 114 80 60
-151.0 146.0 403.0 113 79 59
-151.0 146.0 403.0 114 80 60
-150.0 146.0 403.0 114 80 60
-150.0 146.0 403.0 114 80 60
-149.0 146.0 403.0 113 79 59
-149.0 146.0 404.0 111 77 57
-148.0 146.0 404.0 111 77 57
-147.0 146.0 404.0 111 77 57
-147.0 146.0 404.0 111 77 57
-146.0 146.0 404.0 111 77 57
-145.0 146.0 404.0 110 78 57
-145.0 146.0 404.0 109 77 56
-144.0 146.0 404.0 108 76 55
-144.0 146.0 404.0 107 75 54
-143.0 147.0 404.0 108 76 55
-142.0 147.0 404.0 110 77 58
-142.0 147.0 405.0 110 77 59
-141.0 147.0 405.0 108 77 58
-141.0 147.0 405.0 106 76 57
-140.0 147.0 405.0 106 76 57
-139.0 147.0 405.0 107 77 58
-139.0 147.0 405.0 106 77 58
-138.0 147.0 405.0 105 76 57
-137.0 147.0 405.0 105 76 57
-137.0 147.0 405.0 106 77 58
-136.0 147.0 405.0 106 77 58
-136.0 147.0 405.0 107 78 59
-135.0 147.0 405.0 107 78 59
-134.0 147.0 405.0 106 77 58
-134.0 147.0 406.0 105 76 57
-133.0 147.0 406.0 105 76 57
-133.0 147.0 406.0 105 76 57
-132.0 147.0 406.0 105 76 57
-131.0 147.0 406.0 104 75 56
-131.0 147.0 406.0 104 75 56
-130.0 147.0 406.0 103 74 55
-129.0 147.0 406.0 103 74 55
-129.0 147.0 406.0 102 73 54
-128.0 147.0 406.0 102 73 54
-128.0 147.0 406.0 103 74 55
-127.0 147.0 405.0 104 75 56
-126.0 147.0 406.0 104 77 57
-126.0 147.0 406.0 102 76 56
-125.0 147.0 406.0 104 77 57
-125.0 148.0 407.0 106 77 58
-124.0 148.0 408.0 107 78 59
-124.0 148.0 408.0 107 78 59
-123.0 148.0 408.0 106 77 58
-123.0 149.0 409.0 105 76 57
-122.0 149.0 409.0 106 77 58
-121.0 149.0 409.0 106 77 58
-121.0 149.0 409.0 106 77 58
-120.0 149.0 409.0 107 77 58
-119.0 149.0 409.0 107 77 58
-118.0 148.0 408.0 108 78 59
-117.0 148.0 407.0 108 78 59
-117.0 148.0 408.0 108 78 59
-116.0 148.0 408.0 108 78 59
-116.0 149.0 409.0 106 76 57
-115.0 149.0 409.0 104 74 55
-115.0 149.0 410.0 104 74 55
-114.0 149.0 410.0 104 75 56
-114.0 149.0 410.0 104 75 56
-113.0 149.0 410.0 104 75 56
-112.0 149.0 410.0 104 75 56
-112.0 150.0 411.0 104 75 56
-111.0 150.0 411.0 104 75 56
-110.0 149.0 410.0 105 76 57
-110.0 149.0 410.0 105 76 57
-109.0 150.0 411.0 106 77 58
-109.0 150.0 411.0 108 79 60
-108.0 150.0 412.0 108 79 60
-108.0 150.0 412.0 107 78 59
-107.0 150.0 412.0 107 78 59
-106.0 150.0 412.0 107 78 59
-106.0 150.0 412.0 107 78 59
-105.0 150.0 411.0 106 77 58
-104.0 150.0 411.0 105 76 57
-104.0 150.0 411.0 105 76 57
-103.0 149.0 410.0 106 77 58
-102.0 150.0 411.0 106 77 58
-102.0 150.0 411.0 105 76 57
-101.0 150.0 411.0 107 78 59
-100.0 150.0 412.0 106 77 58
-100.0 150.0 413.0 105 76 57
-99.0 150.0 413.0 104 75 56
-99.0 150.0 413.0 103 74 55
-98.0 150.0 413.0 104 75 56
-97.0 150.0 413.0 105 76 57
-97.0 150.0 413.0 106 77 58
-96.0 150.0 413.0 106 77 58
-95.0 150.0 413.0 105 76 57
-95.0 151.0 414.0 104 75 56
-95.0 151.0 415.0 103 74 55
-94.0 151.0 415.0 103 74 55
-93.0 151.0 414.0 102 73 54
-92.0 150.0 413.0 102 73 54
-91.0 150.0 413.0 104 75 56
-91.0 150.0 413.0 104 75 56
-90.0 150.0 412.0 104 75 56
-89.0 150.0 412.0 104 75 56
-89.0 150.0 412.0 104 75 56
-88.0 151.0 413.0 103 74 55
-87.0 151.0 413.0 103 74 55
-87.0 151.0 413.0 101 72 53
-86.0 151.0 414.0 98 69 50
-86.0 151.0 414.0 101 72 53
-85.0 151.0 414.0 101 72 53
-85.0 152.0 416.0 102 73 54
-84.0 152.0 416.0 101 72 53
-83.0 151.0 415.0 101 72 53
-83.0 151.0 415.0 102 73 54
-82.0 151.0 415.0 104 74 55
-81.0 151.0 415.0 104 74 55
-81.0 151.0 415.0 103 73 54
-80.0 151.0 415.0 103 73 54
-79.0 151.0 415.0 104 74 55
-79.0 151.0 415.0 103 73 54
-78.0 151.0 415.0 102 72 53
-77.0 151.0 415.0 103 73 54
-77.0 151.0 415.0 104 74 55
-76.0 151.0 415.0 102 72 53
-75.0 151.0 415.0 106 76 57
-75.0 151.0 415.0 104 74 54
-74.0 151.0 415.0 104 74 53
-73.0 151.0 415.0 106 76 55
-73.0 152.0 416.0 107 77 56
-72.0 152.0 416.0 108 78 60
-72.0 152.0 417.0 108 78 63
-71.0 152.0 417.0 107 77 61
-70.0 152.0 417.0 105 75 58
-69.0 152.0 416.0 108 79 61
-69.0 151.0 415.0 108 79 60
-68.0 151.0 414.0 97 72 55
-67.0 151.0 414.0 95 72 57
-66.0 151.0 414.0 134 113 104
-66.0 151.0 414.0 161 141 138
-65.0 151.0 415.0 160 142 142
-65.0 151.0 415.0 152 135 139
-64.0 151.0 415.0 154 137 141
-63.0 151.0 415.0 155 138 142
-62.0 151.0 414.0 154 137 141
-62.0 151.0 414.0 154 137 141
-61.0 151.0 413.0 155 138 141
-60.0 151.0 413.0 154 136 138
-60.0 151.0 413.0 148 130 132
-59.0 150.0 412.0 153 135 137
-58.0 150.0 412.0 150 132 134
-57.0 150.0 412.0 151 133 135
-57.0 150.0 412.0 145 127 129
-56.0 150.0 412.0 147 129 131
-55.0 150.0 412.0 148 130 132
-55.0 150.0 412.0 147 129 131
-54.0 150.0 411.0 144 127 130
-53.0 150.0 411.0 144 127 131
-53.0 150.0 411.0 144 127 130
-52.0 150.0 411.0 143 126 128
-51.0 150.0 411.0 143 126 128
-51.0 150.0 411.0 143 125 127
-50.0 150.0 410.0 143 125 128
-49.0 150.0 410.0 142 124 128
-49.0 150.0 410.0 141 123 127
-48.0 150.0 411.0 141 123 127
-47.0 150.0 411.0 141 123 127
-47.0 150.0 411.0 140 122 126
-46.0 150.0 411.0 139 121 125
-45.0 150.0 411.0 140 122 126
-45.0 150.0 411.0 140 122 126
-44.0 150.0 411.0 140 122 126
-43.0 151.0 412.0 141 123 127
-43.0 151.0 412.0 142 124 128
-42.0 151.0 412.0 143 125 129
-41.0 151.0 412.0 145 127 131
-41.0 151.0 412.0 145 128 132
-40.0 151.0 412.0 145 128 132
-39.0 151.0 412.0 146 129 133
-39.0 151.0 412.0 146 129 133
-38.0 151.0 412.0 144 127 131
-37.0 151.0 412.0 146 129 133
-37.0 151.0 412.0 146 129 133
-36.0 151.0 412.0 146 129 133
-36.0 151.0 413.0 145 129 133
-35.0 151.0 413.0 145 131 134
-34.0 151.0 413.0 146 132 135
-34.0 151.0 413.0 148 134 137
-33.0 151.0 414.0 148 134 136
-32.0 151.0 414.0 146 132 133
-32.0 151.0 414.0 147 133 135
-31.0 152.0 415.0 148 134 137
-30.0 152.0 415.0 149 135 139
-30.0 152.0 415.0 149 134 140
-29.0 152.0 415.0 149 134 141
-28.0 152.0 416.0 149 134 142
-28.0 152.0 416.0 150 134 141
-27.0 152.0 416.0 150 133 139
-26.0 152.0 416.0 152 135 140
-26.0 152.0 417.0 155 138 142
-25.0 153.0 418.0 153 136 138
-24.0 153.0 418.0 152 136 135
-24.0 153.0 419.0 152 136 133
-23.0 154.0 420.0 152 136 132
-23.0 154.0 420.0 157 136 129
-22.0 154.0 420.0 144 117 107
-21.0 154.0 420.0 98 70 57
-21.0 154.0 420.0 96 67 52
-20.0 153.0 419.0 100 71 53
-19.0 154.0 420.0 106 76 55
-18.0 154.0 420.0 105 75 53
-18.0 154.0 421.0 103 73 50
-17.0 154.0 422.0 103 73 50
-17.0 154.0 422.0 103 73 50
-16.0 154.0 422.0 105 74 50
-15.0 155.0 423.0 106 74 49
-15.0 155.0 423.0 109 76 51
-14.0 155.0 423.0 108 75 50
-13.0 155.0 423.0 107 72 48
-12.0 154.0 422.0 109 73 49
-12.0 154.0 422.0 108 73 49
-11.0 154.0 422.0 104 71 46
-10.0 154.0 422.0 106 72 49
-10.0 155.0 423.0 109 75 53
-9.0 155.0 424.0 111 77 55
-8.0 155.0 424.0 110 76 54
-8.0 155.0 424.0 109 76 53
-7.0 155.0 424.0 107 75 52
-6.0 155.0 424.0 107 75 52
-6.0 155.0 424.0 106 74 51
-5.0 155.0 423.0 108 76 54
-4.0 155.0 423.0 110 78 57
-4.0 155.0 424.0 109 78 57
-3.0 155.0 424.0 110 80 59
-2.0 155.0 424.0 112 82 61
-2.0 155.0 424.0 110 80 59
-1.0 155.0 425.0 108 77 55
0.0 155.0 425.0 110 78 55
1.0 155.0 424.0 111 79 56
1.0 155.0 425.0 111 79 56
2.0 155.0 425.0 111 79 56
3.0 155.0 424.0 111 79 56
3.0 155.0 424.0 113 81 58
4.0 155.0 423.0 112 80 57
5.0 155.0 424.0 110 78 55
5.0 155.0 424.0 109 77 54
6.0 155.0 425.0 110 78 55
7.0 155.0 425.0 110 78 55
7.0 155.0 425.0 110 78 55
8.0 156.0 426.0 110 78 55
9.0 156.0 426.0 110 78 55
10.0 156.0 426.0 110 78 55
10.0 155.0 425.0 111 79 56
11.0 155.0 425.0 110 78 55
12.0 155.0 425.0 110 78 55
12.0 155.0 424.0 110 78 55
13.0 155.0 425.0 109 77 54
14.0 155.0 425.0 110 78 55
14.0 155.0 425.0 111 79 56
15.0 155.0 425.0 112 80 57
16.0 156.0 426.0 112 79 55
16.0 156.0 426.0 111 78 53
17.0 156.0 426.0 110 77 52
18.0 156.0 427.0 111 78 53
19.0 156.0 427.0 111 78 53
19.0 156.0 427.0 109 76 51
20.0 156.0 427.0 108 75 50
21.0 156.0 427.0 109 76 51
21.0 156.0 428.0 109 76 51
22.0 156.0 427.0 111 78 53
23.0 156.0 427.0 112 79 54
23.0 156.0 428.0 112 79 54
24.0 156.0 428.0 112 79 54
25.0 156.0 428.0 112 79 54
26.0 156.0 428.0 112 79 54
26.0 156.0 428.0 113 80 55
27.0 156.0 428.0 113 80 55
28.0 156.0 428.0 111 78 53
28.0 157.0 429.0 112 79 54
29.0 157.0 429.0 112 79 54
30.0 157.0 429.0 111 78 53
30.0 157.0 429.0 111 78 53
31.0 157.0 429.0 112 79 54
32.0 157.0 429.0 112 79 54
33.0 157.0 429.0 113 80 55
33.0 157.0 429.0 112 79 54
34.0 157.0 430.0 113 80 55
35.0 157.0 430.0 113 80 55
35.0 157.0 430.0 112 79 54
36.0 157.0 430.0 113 80 55
37.0 158.0 431.0 113 80 55
37.0 157.0 430.0 112 79 54
38.0 157.0 430.0 112 79 54
39.0 157.0 430.0 113 80 55
40.0 157.0 430.0 113 80 55
40.0 157.0 429.0 114 81 56
41.0 157.0 429.0 113 80 55
41.0 156.0 428.0 111 79 54
42.0 156.0 428.0 111 79 54
43.0 156.0 428.0 111 79 54
44.0 157.0 429.0 110 78 53
44.0 157.0 429.0 112 80 55
45.0 157.0 430.0 112 80 55
46.0 157.0 430.0 110 78 53
47.0 157.0 431.0 109 77 52
47.0 157.0 431.0 110 78 53
48.0 157.0 431.0 112 80 55
49.0 157.0 431.0 112 80 55
49.0 157.0 430.0 113 81 56
50.0 157.0 430.0 111 79 54
51.0 157.0 430.0 111 79 54
51.0 157.0 430.0 109 77 52
52.0 157.0 431.0 109 77 52
53.0 158.0 432.0 108 76 51
54.0 158.0 432.0 108 76 51
54.0 158.0 432.0 110 78 53
55.0 158.0 432.0 109 77 52
56.0 158.0 433.0 109 77 52
57.0 158.0 433.0 110 78 53
57.0 158.0 432.0 109 77 52
58.0 158.0 432.0 110 78 53
58.0 157.0 431.0 111 79 54
59.0 157.0 431.0 112 80 55
60.0 157.0 431.0 112 80 55
60.0 157.0 430.0 110 78 54
61.0 157.0 430.0 110 78 55
62.0 157.0 430.0 110 78 55
63.0 157.0 431.0 111 79 56
63.0 157.0 431.0 112 80 57
64.0 157.0 431.0 111 79 56
65.0 157.0 431.0 111 79 56
65.0 157.0 431.0 112 80 57
66.0 157.0 430.0 112 80 58
67.0 157.0 430.0 114 82 61
67.0 157.0 430.0 112 80 58
68.0 157.0 431.0 110 78 55
69.0 157.0 431.0 109 77 54
70.0 157.0 431.0 110 78 55
70.0 158.0 432.0 110 78 55
71.0 158.0 432.0 110 78 55
72.0 158.0 432.0 111 79 56
73.0 158.0 432.0 109 77 54
73.0 158.0 432.0 108 76 52
74.0 158.0 432.0 107 75 50
75.0 158.0 432.0 108 76 51
75.0 158.0 432.0 109 77 52
76.0 158.0 432.0 109 77 52
77.0 158.0 432.0 109 77 52
77.0 158.0 432.0 110 78 54
78.0 158.0 432.0 111 79 56
79.0 158.0 432.0 111 79 56
80.0 158.0 433.0 110 78 55
80.0 158.0 433.0 109 77 54
81.0 158.0 433.0 110 78 55
82.0 158.0 433.0 111 79 56
82.0 158.0 433.0 111 79 56
83.0 158.0 434.0 112 80 57
84.0 158.0 434.0 112 80 57
85.0 158.0 434.0 110 78 55
85.0 158.0 434.0 109 77 54
86.0 159.0 435.0 108 76 53
87.0 159.0 435.0 108 76 53
88.0 159.0 435.0 109 77 54
89.0 159.0 436.0 111 79 56
89.0 159.0 436.0 112 80 57
90.0 159.0 435.0 111 79 56
91.0 159.0 435.0 111 79 56
91.0 159.0 435.0 111 79 56
92.0 159.0 435.0 110 78 55
93.0 159.0 435.0 109 77 54
94.0 159.0 436.0 109 77 54
94.0 159.0 435.0 110 78 55
95.0 159.0 435.0 112 80 57
95.0 159.0 435.0 111 79 56
96.0 159.0 435.0 111 79 56
97.0 159.0 436.0 112 80 57
98.0 159.0 436.0 111 79 56
98.0 159.0 435.0 112 80 57
99.0 159.0 435.0 115 83 60
100.0 159.0 436.0 114 82 59
101.0 159.0 436.0 111 79 55
101.0 159.0 436.0 112 80 55
102.0 158.0 435.0 112 80 55
103.0 159.0 436.0 112 80 55
103.0 159.0 436.0 113 81 57
104.0 158.0 434.0 113 81 58
104.0 158.0 434.0 113 81 58
105.0 158.0 435.0 113 81 58
106.0 159.0 436.0 114 82 59
107.0 159.0 436.0 115 83 60
108.0 159.0 437.0 115 83 60
108.0 159.0 437.0 115 83 60
109.0 159.0 437.0 115 83 60
110.0 159.0 437.0 115 83 60
111.0 159.0 437.0 112 80 57
111.0 159.0 437.0 109 77 54
112.0 159.0 437.0 109 77 54
113.0 159.0 437.0 111 79 56
114.0 159.0 438.0 113 81 58
114.0 159.0 437.0 114 82 59
115.0 159.0 437.0 113 81 58
116.0 159.0 438.0 111 79 56
116.0 159.0 438.0 111 79 56
117.0 160.0 439.0 112 80 57
118.0 160.0 439.0 111 80 57
119.0 160.0 439.0 111 81 58
119.0 159.0 437.0 111 81 59
120.0 159.0 438.0 112 82 61
121.0 159.0 438.0 112 82 61
121.0 159.0 437.0 113 83 62
122.0 159.0 437.0 113 83 62
122.0 159.0 437.0 110 80 59
123.0 159.0 437.0 110 80 58
124.0 159.0 438.0 111 81 58
125.0 159.0 438.0 110 80 57
125.0 159.0 437.0 111 81 58
126.0 159.0 437.0 113 83 61
127.0 159.0 437.0 114 84 63
128.0 159.0 438.0 114 84 63
128.0 159.0 438.0 113 83 62
129.0 159.0 438.0 113 83 62
130.0 160.0 439.0 113 83 62
131.0 160.0 439.0 113 83 62
131.0 160.0 439.0 112 82 61
132.0 160.0 439.0 112 82 61
133.0 160.0 439.0 112 82 61
134.0 160.0 440.0 113 83 62
135.0 160.0 440.0 113 83 62
135.0 160.0 440.0 112 81 60
136.0 160.0 440.0 112 80 59
137.0 160.0 440.0 113 81 60
138.0 160.0 441.0 115 83 62
138.0 160.0 441.0 116 84 63
139.0 160.0 441.0 115 83 62
140.0 161.0 442.0 113 82 61
141.0 161.0 443.0 111 81 60
142.0 161.0 443.0 109 79 57
142.0 161.0 443.0 111 81 58
143.0 161.0 443.0 111 81 58
144.0 161.0 443.0 111 81 58
145.0 161.0 443.0 111 83 59
145.0 161.0 443.0 112 84 60
146.0 161.0 442.0 111 83 59
146.0 160.0 442.0 111 83 59
147.0 160.0 442.0 112 84 60
148.0 161.0 443.0 114 84 61
149.0 161.0 443.0 114 84 61
150.0 161.0 443.0 113 83 60
150.0 161.0 443.0 114 84 61
151.0 161.0 443.0 114 84 61
152.0 161.0 444.0 115 85 62
153.0 161.0 444.0 114 84 61
153.0 161.0 444.0 114 84 61
154.0 161.0 444.0 115 85 62
155.0 161.0 444.0 116 86 63
156.0 161.0 445.0 115 85 62
157.0 161.0 445.0 114 84 61
158.0 162.0 446.0 114 84 61
158.0 162.0 446.0 114 84 61
159.0 162.0 446.0 115 85 62
160.0 162.0 447.0 115 87 63
161.0 162.0 447.0 117 89 65
161.0 162.0 447.0 117 89 65
163.0 162.0 448.0 118 88 65
163.0 162.0 448.0 117 87 64
164.0 162.0 448.0 117 87 64
165.0 163.0 449.0 117 88 66
-205.0 141.0 391.0 124 90 72
-206.0 142.0 393.0 123 89 73
-205.0 142.0 393.0 124 90 73
-204.0 142.0 393.0 123 90 72
-204.0 142.0 393.0 124 90 69
-204.0 142.0 394.0 124 91 66
-203.0 142.0 394.0 124 90 68
-202.0 142.0 394.0 124 90 70
-202.0 142.0 394.0 123 89 68
-202.0 143.0 395.0 123 89 67
-201.0 143.0 394.0 123 89 67
-200.0 143.0 394.0 121 87 65
-199.0 143.0 394.0 120 86 64
-199.0 143.0 395.0 122 88 66
-199.0 143.0 396.0 122 88 66
-199.0 143.0 396.0 122 88 66
-198.0 143.0 396.0 122 88 66
-197.0 143.0 396.0 123 89 67
-197.0 144.0 397.0 123 89 67
-197.0 144.0 397.0 122 88 66
-196.0 144.0 397.0 122 88 66
-195.0 144.0 397.0 122 88 66
-195.0 144.0 397.0 122 88 66
-194.0 144.0 397.0 123 89 67
-193.0 144.0 397.0 123 90 67
-193.0 144.0 397.0 121 89 66
-192.0 144.0 397.0 120 88 65
-192.0 144.0 397.0 119 87 64
-190.0 143.0 396.0 119 86 63
-190.0 144.0 397.0 119 85 63
-190.0 144.0 397.0 120 86 64
-189.0 144.0 397.0 122 88 66
-189.0 144.0 398.0 122 88 66
-188.0 144.0 398.0 121 87 65
-188.0 144.0 398.0 122 88 66
-187.0 144.0 398.0 124 90 68
-187.0 145.0 399.0 126 91 69
-186.0 144.0 398.0 126 90 68
-185.0 144.0 398.0 124 88 66
-185.0 144.0 398.0 123 87 65
-184.0 144.0 398.0 120 85 63
-183.0 144.0 398.0 119 85 63
-183.0 144.0 398.0 118 84 62
-182.0 144.0 398.0 118 84 62
-181.0 144.0 398.0 118 84 62
-181.0 144.0 398.0 118 84 62
-180.0 144.0 398.0 117 83 61
-180.0 145.0 399.0 117 83 61
-179.0 144.0 398.0 117 83 61
-179.0 145.0 399.0 118 84 62
-178.0 145.0 399.0 118 84 62
-178.0 145.0 399.0 119 85 63
-177.0 145.0 400.0 119 85 63
-177.0 145.0 400.0 120 86 64
-176.0 145.0 400.0 120 86 64
-176.0 145.0 400.0 118 84 62
-175.0 145.0 400.0 117 84 61
-174.0 145.0 399.0 114 82 59
-173.0 145.0 399.0 114 82 59
-173.0 145.0 399.0 115 83 60
-172.0 145.0 399.0 115 83 60
-171.0 145.0 399.0 116 84 61
-171.0 145.0 399.0 115 83 61
-170.0 145.0 400.0 116 84 63
-170.0 145.0 400.0 116 84 63
-169.0 145.0 400.0 116 84 63
-169.0 145.0 400.0 114 83 62
-168.0 145.0 400.0 112 82 61
-167.0 145.0 400.0 112 82 61
-167.0 145.0 400.0 111 81 60
-166.0 145.0 400.0 111 81 60
-165.0 145.0 400.0 110 80 59
-165.0 146.0 401.0 110 81 60
-165.0 146.0 401.0 109 81 59
-164.0 146.0 401.0 110 81 60
-163.0 146.0 401.0 111 81 60
-163.0 146.0 401.0 112 82 61
-162.0 146.0 401.0 112 82 61
-161.0 145.0 400.0 112 82 61
-160.0 145.0 400.0 111 81 60
-160.0 145.0 400.0 112 82 61
-159.0 145.0 400.0 111 81 60
-159.0 145.0 400.0 112 81 60
-157.0 145.0 399.0 114 82 61
-157.0 145.0 399.0 114 82 61
-157.0 145.0 400.0 115 83 62
-156.0 145.0 400.0 115 83 62
-155.0 145.0 400.0 115 83 62
-155.0 146.0 401.0 114 80 60
-154.0 146.0 401.0 116 82 62
-154.0 146.0 401.0 114 80 60
-153.0 146.0 401.0 113 79 59
-153.0 146.0 401.0 113 79 59
-152.0 146.0 401.0 114 80 60
-151.0 146.0 401.0 115 81 61
-151.0 146.0 402.0 115 81 61
-150.0 146.0 402.0 115 81 61
-150.0 146.0 402.0 115 81 61
-149.0 146.0 402.0 115 81 61
-149.0 146.0 402.0 114 80 60
-148.0 147.0 403.0 112 78 58
-148.0 147.0 403.0 113 79 59
-147.0 147.0 403.0 113 79 59
-146.0 147.0 403.0 111 77 57
-146.0 147.0 403.0 111 77 57
-145.0 147.0 403.0 109 77 56
-144.0 147.0 403.0 109 77 56
-144.0 147.0 403.0 109 77 56
-143.0 147.0 403.0 108 76 55
-143.0 147.0 403.0 109 77 56
-142.0 147.0 403.0 111 78 59
-141.0 147.0 403.0 112 79 61
-141.0 147.0 403.0 111 80 61
-140.0 147.0 404.0 108 78 59
-140.0 147.0 404.0 109 79 60
-139.0 147.0 404.0 110 80 61
-138.0 147.0 404.0 109 80 61
-138.0 147.0 404.0 106 77 58
-137.0 148.0 405.0 105 76 57
-137.0 148.0 405.0 107 78 59
-136.0 148.0 405.0 107 78 59
-136.0 148.0 405.0 108 79 60
-135.0 148.0 405.0 108 79 60
-134.0 148.0 405.0 107 78 59
-133.0 147.0 404.0 107 78 59
-133.0 147.0 404.0 106 77 58
-132.0 148.0 405.0 105 76 57
-132.0 148.0 405.0 106 77 58
-131.0 148.0 405.0 106 77 58
-130.0 148.0 405.0 105 76 57
-130.0 148.0 405.0 104 75 56
-129.0 148.0 405.0 103 74 55
-128.0 148.0 405.0 103 74 55
-128.0 148.0 405.0 105 76 57
-127.0 148.0 405.0 106 77 58
-126.0 147.0 404.0 106 77 58
-126.0 147.0 404.0 105 78 58
-125.0 147.0 404.0 102 76 56
-125.0 148.0 405.0 104 77 57
-124.0 148.0 406.0 106 77 58
-124.0 148.0 406.0 107 78 59
-123.0 149.0 407.0 108 79 60
-123.0 149.0 407.0 108 79 60
-122.0 149.0 408.0 108 79 60
-122.0 149.0 408.0 108 79 60
-121.0 149.0 408.0 108 79 60
-120.0 149.0 407.0 108 79 60
-119.0 149.0 407.0 108 78 59
-119.0 149.0 407.0 107 77 58
-118.0 149.0 407.0 108 78 59
-117.0 149.0 407.0 107 77 58
-117.0 149.0 407.0 107 77 58
-116.0 149.0 407.0 107 77 58
-116.0 149.0 408.0 105 75 56
-115.0 149.0 408.0 105 75 56
-115.0 149.0 409.0 105 75 56
-114.0 149.0 409.0 105 76 57
-113.0 149.0 409.0 106 77 58
-113.0 149.0 409.0 106 77 58
-112.0 149.0 409.0 104 75 56
-112.0 150.0 410.0 104 75 56
-111.0 150.0 410.0 104 75 56
-110.0 149.0 409.0 105 76 57
-110.0 149.0 409.0 106 77 58
-109.0 149.0 409.0 107 78 59
-108.0 150.0 410.0 110 81 62
-108.0 150.0 410.0 110 81 62
-107.0 150.0 410.0 109 80 61
-107.0 150.0 410.0 107 78 59
-106.0 150.0 410.0 107 78 59
-105.0 150.0 411.0 107 78 59
-105.0 150.0 411.0 107 78 59
-104.0 150.0 410.0 105 76 57
-103.0 150.0 410.0 104 75 56
-103.0 150.0 410.0 104 75 56
-102.0 150.0 410.0 105 76 57
-101.0 150.0 410.0 105 76 57
-101.0 150.0 410.0 106 77 58
-100.0 150.0 411.0 106 77 58
-100.0 151.0 412.0 106 77 58
-99.0 151.0 412.0 105 76 57
-98.0 151.0 412.0 105 76 57
-98.0 151.0 412.0 106 77 58
-97.0 150.0 411.0 108 79 60
-96.0 150.0 411.0 110 81 62
-96.0 150.0 411.0 108 79 60
-95.0 151.0 412.0 107 78 59
-95.0 151.0 413.0 105 76 57
-94.0 151.0 413.0 104 75 56
-93.0 151.0 413.0 104 75 56
-93.0 151.0 413.0 105 76 57
-92.0 151.0 412.0 105 76 57
-91.0 151.0 412.0 105 76 57
-90.0 150.0 411.0 104 75 56
-90.0 150.0 411.0 104 75 56
-89.0 150.0 411.0 105 76 57
-88.0 150.0 411.0 105 76 57
-88.0 151.0 412.0 105 76 57
-87.0 151.0 412.0 104 75 56
-87.0 151.0 412.0 103 74 55
-86.0 151.0 413.0 102 73 54
-85.0 151.0 413.0 103 74 55
-85.0 151.0 413.0 104 75 56
-84.0 152.0 414.0 104 75 56
-84.0 152.0 414.0 103 74 55
-83.0 152.0 414.0 102 73 54
-82.0 151.0 413.0 102 73 54
-82.0 151.0 413.0 104 74 55
-81.0 151.0 413.0 104 74 55
-80.0 152.0 414.0 104 74 55
-80.0 152.0 414.0 104 74 55
-79.0 152.0 414.0 106 76 57
-78.0 152.0 414.0 106 76 57
-78.0 152.0 414.0 104 74 55
-77.0 152.0 414.0 106 76 57
-76.0 152.0 414.0 107 77 58
-76.0 152.0 414.0 105 75 56
-75.0 152.0 414.0 107 77 58
-74.0 152.0 414.0 106 76 56
-74.0 152.0 415.0 106 76 55
-73.0 152.0 414.0 108 78 57
-73.0 152.0 415.0 108 78 57
-72.0 152.0 415.0 108 78 60
-71.0 152.0 416.0 108 78 63
-71.0 152.0 415.0 106 76 60
-70.0 152.0 415.0 110 80 63
-69.0 152.0 415.0 110 81 63
-68.0 152.0 414.0 111 82 63
-68.0 152.0 414.0 106 81 64
-67.0 151.0 413.0 93 70 55
-66.0 151.0 413.0 83 62 53
-66.0 151.0 413.0 102 82 79
-65.0 151.0 413.0 137 119 119
-64.0 151.0 413.0 154 137 141
-64.0 151.0 413.0 153 136 140
-63.0 151.0 413.0 154 137 141
-62.0 151.0 413.0 153 136 140
-62.0 151.0 413.0 151 134 138
-61.0 151.0 412.0 152 135 138
-60.0 151.0 412.0 154 136 138
-59.0 151.0 412.0 152 134 136
-59.0 151.0 412.0 152 134 136
-58.0 151.0 411.0 148 130 132
-57.0 151.0 411.0 150 132 134
-57.0 151.0 412.0 143 125 127
-56.0 151.0 412.0 148 130 132
-55.0 151.0 411.0 149 131 133
-55.0 151.0 411.0 149 131 133
-54.0 151.0 411.0 145 128 131
-53.0 151.0 411.0 145 128 132
-53.0 151.0 411.0 144 127 130
-52.0 150.0 410.0 143 126 128
-51.0 150.0 410.0 143 126 128
-51.0 150.0 410.0 144 126 128
-50.0 150.0 410.0 143 125 128
-49.0 150.0 409.0 141 123 127
-48.0 150.0 409.0 140 122 126
-48.0 150.0 410.0 142 124 128
-47.0 150.0 410.0 142 124 128
-47.0 150.0 410.0 141 123 127
-46.0 150.0 410.0 141 123 127
-45.0 150.0 410.0 144 126 130
-45.0 150.0 410.0 146 128 132
-44.0 150.0 410.0 145 127 131
-43.0 151.0 411.0 147 129 133
-43.0 151.0 412.0 144 126 130
-42.0 151.0 412.0 145 127 131
-41.0 151.0 412.0 148 130 134
-41.0 151.0 412.0 149 132 136
-40.0 151.0 412.0 149 132 136
-39.0 151.0 412.0 149 132 136
-39.0 151.0 412.0 149 132 136
-38.0 151.0 412.0 148 131 135
-37.0 151.0 412.0 153 136 140
-37.0 151.0 412.0 153 136 140
-36.0 151.0 412.0 152 135 139
-35.0 151.0 412.0 151 135 139
-35.0 151.0 412.0 150 136 139
-34.0 152.0 413.0 151 137 140
-34.0 152.0 413.0 153 139 142
-33.0 152.0 413.0 154 140 142
-32.0 152.0 414.0 152 138 139
-32.0 152.0 414.0 154 140 142
-31.0 152.0 414.0 155 141 144
-30.0 152.0 415.0 154 140 144
-30.0 152.0 415.0 153 138 144
-29.0 152.0 415.0 152 137 144
-28.0 152.0 415.0 152 137 145
-28.0 153.0 416.0 153 137 144
-27.0 153.0 416.0 153 136 142
-26.0 153.0 416.0 156 139 144
-26.0 153.0 416.0 156 139 143
-25.0 153.0 417.0 158 141 143
-24.0 153.0 418.0 165 149 148
-24.0 153.0 418.0 162 146 143
-23.0 154.0 419.0 135 119 115
-23.0 154.0 420.0 109 88 81
-22.0 154.0 419.0 88 61 51
-21.0 154.0 419.0 100 72 59
-20.0 154.0 419.0 108 79 64
-20.0 154.0 419.0 110 81 63
-19.0 154.0 419.0 103 73 52
-18.0 154.0 420.0 108 78 56
-18.0 154.0 420.0 105 75 52
-17.0 155.0 421.0 102 72 49
-16.0 155.0 421.0 104 74 51
-16.0 155.0 422.0 104 73 49
-15.0 155.0 421.0 106 74 49
-14.0 155.0 422.0 109 76 51
-14.0 155.0 421.0 107 74 49
-13.0 155.0 422.0 108 73 49
-12.0 155.0 422.0 111 75 51
-12.0 155.0 422.0 108 73 49
-11.0 155.0 422.0 104 71 46
-10.0 155.0 422.0 105 71 48
-10.0 155.0 422.0 109 75 53
-9.0 155.0 423.0 111 77 55
-8.0 155.0 423.0 111 77 55
-8.0 155.0 423.0 110 77 54
-7.0 155.0 423.0 108 76 53
-6.0 155.0 423.0 105 73 50
-6.0 155.0 423.0 107 75 52
-5.0 155.0 423.0 109 77 55
-4.0 155.0 423.0 110 78 57
-4.0 155.0 422.0 108 77 56
-3.0 155.0 422.0 109 79 58
-2.0 155.0 422.0 111 81 60
-1.0 155.0 423.0 110 80 59
-1.0 155.0 423.0 109 78 56
0.0 156.0 424.0 110 78 55
1.0 155.0 423.0 111 79 56
1.0 156.0 424.0 111 79 56
2.0 156.0 424.0 111 79 56
3.0 155.0 423.0 111 79 56
3.0 155.0 423.0 112 80 57
4.0 155.0 422.0 110 78 55
5.0 155.0 422.0 109 77 54
5.0 155.0 422.0 110 78 55
6.0 155.0 423.0 111 79 56
7.0 156.0 424.0 111 79 56
7.0 156.0 424.0 110 78 55
8.0 156.0 424.0 110 78 55
9.0 156.0 425.0 110 78 55
10.0 156.0 425.0 110 78 55
10.0 156.0 424.0 110 78 55
11.0 156.0 424.0 111 79 56
12.0 156.0 424.0 111 79 56
12.0 156.0 424.0 111 79 56
13.0 155.0 423.0 110 78 55
14.0 156.0 424.0 109 77 54
14.0 156.0 424.0 110 78 55
15.0 156.0 424.0 112 80 57
16.0 156.0 424.0 112 79 55
16.0 156.0 425.0 111 78 53
17.0 156.0 425.0 110 77 52
18.0 156.0 425.0 112 79 54
18.0 156.0 425.0 113 80 55
19.0 156.0 425.0 110 77 52
20.0 156.0 425.0 109 76 51
21.0 156.0 425.0 109 76 51
21.0 156.0 425.0 108 75 50
22.0 156.0 425.0 109 76 51
23.0 156.0 425.0 111 78 53
23.0 156.0 426.0 111 78 53
24.0 156.0 426.0 111 78 53
25.0 157.0 427.0 112 79 54
25.0 156.0 426.0 113 80 55
26.0 156.0 426.0 113 80 55
27.0 157.0 427.0 115 82 57
28.0 157.0 427.0 112 79 54
28.0 157.0 427.0 112 79 54
29.0 157.0 428.0 110 77 52
30.0 157.0 428.0 109 76 51
30.0 157.0 428.0 110 77 52
31.0 157.0 428.0 111 78 53
32.0 157.0 428.0 111 78 53
32.0 157.0 428.0 111 78 53
33.0 157.0 428.0 113 80 55
34.0 157.0 428.0 114 81 56
35.0 157.0 428.0 113 80 55
35.0 157.0 429.0 113 80 55
36.0 157.0 429.0 113 80 55
37.0 157.0 429.0 112 79 54
37.0 157.0 429.0 111 78 53
38.0 157.0 428.0 112 79 54
39.0 157.0 428.0 112 79 54
39.0 157.0 428.0 113 80 55
40.0 157.0 427.0 113 80 55
41.0 157.0 427.0 113 80 55
41.0 157.0 427.0 111 79 54
42.0 157.0 427.0 111 79 54
43.0 157.0 427.0 110 78 53
43.0 157.0 427.0 110 78 53
44.0 157.0 427.0 112 80 55
45.0 157.0 428.0 112 80 55
46.0 157.0 428.0 111 79 54
46.0 157.0 429.0 110 78 53
47.0 157.0 429.0 111 79 54
48.0 157.0 428.0 112 80 55
48.0 157.0 429.0 112 80 55
49.0 157.0 429.0 113 81 56
50.0 157.0 428.0 110 78 53
50.0 157.0 428.0 110 78 53
51.0 157.0 428.0 109 77 52
52.0 157.0 429.0 109 77 52
53.0 157.0 429.0 108 76 51
53.0 158.0 430.0 108 76 51
54.0 158.0 430.0 111 79 54
55.0 158.0 430.0 110 78 53
56.0 158.0 431.0 110 78 53
56.0 158.0 431.0 111 79 54
57.0 158.0 431.0 111 79 54
58.0 158.0 431.0 110 78 53
58.0 158.0 431.0 111 79 54
59.0 158.0 430.0 112 80 55
60.0 158.0 430.0 112 80 55
60.0 157.0 429.0 112 80 56
61.0 157.0 429.0 110 78 55
62.0 157.0 429.0 110 78 55
62.0 157.0 428.0 112 80 57
63.0 157.0 429.0 113 81 58
64.0 157.0 429.0 113 81 58
64.0 157.0 429.0 113 81 58
65.0 157.0 429.0 115 83 60
66.0 157.0 429.0 115 83 61
66.0 157.0 429.0 115 83 62
67.0 157.0 429.0 113 81 59
68.0 158.0 430.0 110 78 55
69.0 158.0 430.0 109 77 54
70.0 158.0 431.0 110 78 55
70.0 158.0 431.0 110 78 55
71.0 158.0 431.0 110 78 55
72.0 158.0 431.0 109 77 54
72.0 158.0 431.0 108 76 53
73.0 158.0 430.0 109 77 53
74.0 158.0 430.0 109 77 52
74.0 158.0 430.0 109 77 52
75.0 158.0 431.0 110 78 53
76.0 158.0 430.0 110 78 53
76.0 158.0 430.0 111 79 54
77.0 158.0 431.0 112 80 56
78.0 158.0 431.0 112 80 57
79.0 158.0 431.0 113 81 58
79.0 158.0 431.0 111 79 56
80.0 158.0 432.0 111 79 56
81.0 158.0 431.0 111 79 56
82.0 158.0 432.0 111 79 56
82.0 159.0 433.0 111 79 56
83.0 159.0 433.0 112 80 57
84.0 159.0 433.0 115 83 60
85.0 159.0 433.0 114 82 59
85.0 159.0 433.0 112 80 57
86.0 159.0 434.0 110 78 55
87.0 159.0 435.0 111 79 56
88.0 159.0 434.0 111 79 56
88.0 159.0 434.0 111 79 56
89.0 159.0 435.0 112 80 57
90.0 159.0 434.0 112 80 57
90.0 159.0 434.0 112 80 57
91.0 159.0 434.0 111 79 56
92.0 159.0 434.0 110 78 55
92.0 159.0 434.0 110 78 55
93.0 159.0 434.0 110 78 55
94.0 159.0 434.0 111 79 56
94.0 159.0 434.0 112 80 57
95.0 159.0 434.0 111 79 56
96.0 159.0 434.0 111 79 56
97.0 159.0 434.0 111 79 56
97.0 159.0 434.0 111 79 56
98.0 159.0 434.0 111 79 56
98.0 158.0 433.0 114 82 59
99.0 159.0 434.0 115 83 60
100.0 159.0 434.0 112 80 56
101.0 159.0 434.0 112 80 55
101.0 159.0 434.0 112 80 55
102.0 159.0 434.0 112 80 55
103.0 159.0 434.0 113 81 57
104.0 159.0 434.0 114 82 59
104.0 158.0 433.0 114 82 59
105.0 158.0 433.0 113 81 58
106.0 159.0 434.0 113 81 58
106.0 159.0 434.0 113 81 58
107.0 159.0 434.0 114 82 59
108.0 159.0 435.0 114 82 59
109.0 159.0 435.0 115 83 60
110.0 159.0 436.0 116 84 61
110.0 159.0 435.0 114 82 59
111.0 159.0 435.0 111 79 56
111.0 159.0 435.0 111 79 56
112.0 159.0 435.0 113 81 58
113.0 159.0 436.0 114 82 59
114.0 159.0 435.0 115 83 60
114.0 159.0 435.0 114 82 59
115.0 159.0 436.0 111 79 56
116.0 159.0 436.0 110 78 55
117.0 160.0 437.0 111 79 56
118.0 160.0 437.0 110 79 56
118.0 160.0 437.0 107 77 54
119.0 159.0 436.0 109 79 57
119.0 159.0 435.0 110 80 59
120.0 159.0 435.0 111 81 60
120.0 159.0 435.0 113 83 62
121.0 159.0 435.0 114 84 63
122.0 159.0 435.0 113 83 62
123.0 159.0 436.0 115 85 63
124.0 160.0 437.0 113 83 60
125.0 160.0 437.0 111 81 58
125.0 159.0 436.0 111 81 58
126.0 159.0 436.0 113 83 61
126.0 159.0 436.0 114 84 63
127.0 160.0 437.0 114 84 63
128.0 160.0 437.0 113 83 62
129.0 160.0 437.0 111 81 60
129.0 160.0 437.0 111 81 60
130.0 160.0 437.0 111 81 60
131.0 160.0 437.0 114 84 63
132.0 160.0 438.0 116 86 65
132.0 160.0 438.0 116 86 65
133.0 160.0 439.0 115 85 64
134.0 160.0 438.0 113 83 62
135.0 160.0 438.0 111 80 59
135.0 160.0 438.0 113 81 60
136.0 160.0 439.0 111 79 58
137.0 160.0 439.0 113 81 60
138.0 160.0 439.0 114 82 61
138.0 160.0 439.0 114 82 61
139.0 161.0 440.0 113 82 61
140.0 161.0 441.0 112 82 61
141.0 161.0 441.0 110 80 58
142.0 161.0 441.0 112 82 59
143.0 161.0 442.0 112 82 59
144.0 161.0 442.0 113 83 60
144.0 161.0 442.0 112 84 60
145.0 161.0 441.0 112 84 60
145.0 161.0 441.0 113 85 61
146.0 160.0 440.0 113 85 61
146.0 160.0 440.0 114 86 62
147.0 161.0 441.0 115 85 62
148.0 161.0 441.0 114 84 61
149.0 161.0 442.0 114 84 61
150.0 161.0 442.0 115 85 62
151.0 162.0 443.0 116 86 63
152.0 161.0 443.0 116 86 63
152.0 161.0 443.0 116 86 63
153.0 161.0 443.0 115 85 62
154.0 162.0 444.0 116 86 63
155.0 162.0 444.0 118 88 65
155.0 162.0 444.0 117 87 64
157.0 162.0 445.0 115 85 62
157.0 162.0 445.0 114 84 61
158.0 162.0 445.0 113 83 60
159.0 162.0 446.0 115 85 62
160.0 162.0 446.0 118 90 66
160.0 162.0 446.0 119 91 67
161.0 163.0 447.0 117 89 65
162.0 163.0 447.0 117 87 64
163.0 163.0 447.0 116 86 63
164.0 163.0 448.0 117 87 64
165.0 163.0 448.0 118 89 67
165.0 163.0 448.0 119 91 69
166.0 163.0 449.0 119 91 69
-204.0 141.0 388.0 122 90 67
-205.0 142.0 390.0 124 90 71
-205.0 142.0 392.0 124 90 74
-204.0 142.0 392.0 124 90 72
-204.0 142.0 392.0 124 90 70
-203.0 142.0 392.0 125 90 68
-203.0 142.0 392.0 126 90 66
-202.0 142.0 392.0 127 91 69
-201.0 142.0 392.0 127 91 71
-201.0 142.0 392.0 125 90 69
-201.0 143.0 393.0 123 89 67
-200.0 143.0 393.0 122 88 66
-199.0 143.0 393.0 120 86 64
-198.0 142.0 392.0 120 86 64
-198.0 143.0 393.0 120 86 64
-198.0 143.0 393.0 121 87 65
-198.0 143.0 394.0 121 87 65
-197.0 143.0 394.0 121 87 65
-197.0 144.0 395.0 122 88 66
-196.0 144.0 395.0 123 89 67
-196.0 144.0 395.0 123 89 67
-195.0 144.0 396.0 123 89 67
-195.0 144.0 396.0 123 89 67
-194.0 144.0 396.0 123 89 67
-194.0 144.0 396.0 124 90 68
-193.0 144.0 396.0 124 90 68
-192.0 144.0 395.0 123 89 67
-191.0 144.0 395.0 120 86 64
-191.0 144.0 395.0 118 84 62
-190.0 144.0 395.0 118 84 62
-190.0 144.0 396.0 118 84 62
-189.0 144.0 396.0 120 86 64
-189.0 144.0 396.0 121 87 65
-188.0 144.0 396.0 122 88 66
-188.0 144.0 397.0 121 87 65
-187.0 144.0 396.0 121 87 65
-187.0 144.0 397.0 123 89 67
-186.0 144.0 397.0 124 90 68
-185.0 144.0 396.0 123 89 67
-184.0 144.0 396.0 122 88 66
-184.0 144.0 396.0 121 87 65
-184.0 145.0 397.0 119 85 62
-183.0 145.0 397.0 118 85 60
-182.0 145.0 397.0 118 85 60
-182.0 145.0 397.0 118 85 60
-181.0 145.0 397.0 118 84 61
-180.0 145.0 397.0 118 84 62
-180.0 145.0 397.0 118 84 62
-179.0 145.0 397.0 118 84 62
-179.0 145.0 397.0 117 83 61
-178.0 145.0 398.0 118 84 62
-178.0 145.0 398.0 118 84 62
-177.0 145.0 398.0 119 85 63
-176.0 145.0 398.0 119 86 63
-176.0 145.0 398.0 118 86 63
-175.0 145.0 398.0 118 86 63
-175.0 145.0 398.0 117 85 62
-174.0 145.0 398.0 116 84 61
-173.0 145.0 398.0 114 82 59
-173.0 145.0 398.0 114 82 59
-172.0 145.0 398.0 114 82 59
-171.0 145.0 398.0 114 82 59
-171.0 145.0 398.0 114 82 59
-170.0 145.0 398.0 115 83 60
-170.0 145.0 398.0 116 84 61
-169.0 145.0 398.0 116 85 63
-169.0 146.0 399.0 114 84 63
-168.0 146.0 399.0 113 83 62
-167.0 145.0 398.0 111 81 60
-166.0 145.0 398.0 111 81 60
-166.0 146.0 399.0 111 81 60
-166.0 146.0 399.0 112 82 61
-165.0 146.0 399.0 112 82 61
-164.0 146.0 399.0 113 83 62
-164.0 146.0 399.0 112 82 61
-163.0 146.0 399.0 113 83 62
-163.0 146.0 399.0 112 82 61
-162.0 146.0 399.0 112 82 61
-161.0 146.0 399.0 113 83 62
-161.0 146.0 399.0 112 82 61
-160.0 146.0 399.0 111 81 60
-159.0 145.0 398.0 111 81 60
-158.0 145.0 398.0 110 80 59
-158.0 146.0 399.0 111 81 60
-157.0 146.0 399.0 111 81 60
-156.0 145.0 398.0 111 81 60
-156.0 146.0 399.0 112 82 61
-156.0 146.0 399.0 112 82 61
-155.0 146.0 400.0 111 81 60
-155.0 146.0 400.0 111 80 58
-154.0 146.0 400.0 113 81 58
-153.0 146.0 400.0 112 80 57
-153.0 146.0 400.0 111 79 56
-152.0 146.0 400.0 111 79 56
-152.0 146.0 400.0 113 81 58
-151.0 147.0 401.0 115 83 60
-151.0 147.0 401.0 115 83 60
-150.0 147.0 401.0 114 82 60
-149.0 147.0 401.0 115 83 62
-149.0 147.0 401.0 114 82 61
-148.0 147.0 401.0 113 81 60
-148.0 147.0 402.0 114 80 60
-147.0 147.0 402.0 113 79 59
-147.0 147.0 402.0 112 78 58
-146.0 147.0 402.0 111 77 57
-145.0 147.0 402.0 111 77 57
-145.0 147.0 403.0 110 78 57
-144.0 147.0 402.0 110 78 57
-143.0 147.0 401.0 110 78 57
-142.0 147.0 401.0 109 77 56
-142.0 147.0 401.0 109 77 56
-141.0 147.0 401.0 110 78 57
-141.0 147.0 402.0 111 79 58
-140.0 147.0 402.0 113 80 61
-140.0 147.0 402.0 111 78 60
-139.0 147.0 403.0 111 80 61
-139.0 147.0 403.0 111 81 62
-138.0 147.0 403.0 110 80 61
-137.0 147.0 403.0 108 78 59
-137.0 148.0 403.0 107 77 58
-136.0 148.0 403.0 108 78 59
-136.0 148.0 404.0 108 78 59
-135.0 148.0 404.0 109 79 60
-134.0 148.0 403.0 108 79 60
-134.0 148.0 403.0 108 79 60
-133.0 148.0 403.0 107 78 59
-132.0 148.0 403.0 106 77 58
-132.0 148.0 404.0 106 77 58
-131.0 148.0 404.0 107 77 58
-131.0 148.0 404.0 108 78 59
-130.0 148.0 404.0 108 78 59
-129.0 148.0 404.0 107 78 59
-128.0 148.0 403.0 106 77 58
-128.0 148.0 403.0 106 77 58
-127.0 148.0 403.0 106 77 58
-127.0 148.0 403.0 106 77 58
-126.0 148.0 403.0 106 76 57
-125.0 148.0 403.0 104 75 55
-125.0 148.0 403.0 106 78 56
-124.0 148.0 404.0 106 77 57
-124.0 148.0 405.0 107 78 59
-123.0 148.0 405.0 107 78 59
-123.0 149.0 406.0 108 79 60
-122.0 149.0 406.0 109 80 61
-122.0 149.0 406.0 109 80 61
-121.0 149.0 406.0 108 79 60
-120.0 149.0 406.0 110 81 62
-119.0 148.0 405.0 109 80 61
-119.0 148.0 405.0 108 79 60
-118.0 149.0 405.0 106 77 59
-118.0 149.0 405.0 106 77 60
-117.0 149.0 405.0 105 76 58
-116.0 149.0 406.0 105 76 57
-116.0 149.0 406.0 105 76 57
-115.0 149.0 407.0 104 74 55
-115.0 150.0 408.0 105 75 56
-114.0 150.0 408.0 106 76 57
-114.0 150.0 409.0 106 77 58
-113.0 150.0 409.0 107 78 59
-113.0 150.0 408.0 106 77 58
-112.0 150.0 408.0 105 76 57
-111.0 150.0 408.0 104 75 56
-111.0 150.0 408.0 106 77 58
-110.0 149.0 407.0 105 76 57
-109.0 149.0 407.0 106 77 58
-109.0 150.0 408.0 107 78 59
-108.0 150.0 408.0 108 79 60
-107.0 150.0 408.0 109 80 61
-107.0 150.0 408.0 108 79 60
-106.0 150.0 408.0 106 77 58
-106.0 150.0 409.0 106 77 58
-105.0 150.0 409.0 106 77 58
-105.0 151.0 410.0 107 78 59
-104.0 150.0 409.0 107 78 59
-103.0 150.0 409.0 106 77 58
-102.0 150.0 409.0 106 77 58
-102.0 150.0 409.0 106 77 58
-101.0 151.0 410.0 105 76 57
-101.0 151.0 410.0 105 76 57
-100.0 151.0 410.0 107 78 59
-100.0 151.0 411.0 108 79 60
-99.0 151.0 410.0 107 78 59
-98.0 151.0 411.0 107 78 59
-97.0 151.0 410.0 107 78 59
-97.0 151.0 410.0 109 80 61
-96.0 151.0 410.0 109 82 62
-95.0 151.0 410.0 107 81 61
-95.0 151.0 411.0 108 81 61
-95.0 151.0 412.0 106 77 58
-94.0 151.0 411.0 104 75 56
-93.0 151.0 411.0 105 76 57
-92.0 151.0 411.0 106 77 58
-92.0 151.0 411.0 106 77 58
-91.0 151.0 410.0 107 78 59
-90.0 151.0 410.0 105 76 57
-89.0 150.0 409.0 105 76 57
-89.0 151.0 410.0 106 77 58
-88.0 151.0 410.0 107 78 59
-88.0 151.0 411.0 106 77 58
-87.0 151.0 411.0 105 76 57
-86.0 151.0 411.0 107 77 58
-86.0 151.0 412.0 106 77 58
-85.0 151.0 412.0 106 77 58
-85.0 152.0 412.0 105 76 57
-84.0 152.0 413.0 106 77 58
-83.0 152.0 412.0 106 77 58
-83.0 152.0 412.0 105 76 57
-82.0 152.0 412.0 105 76 57
-81.0 152.0 412.0 105 76 57
-81.0 152.0 412.0 105 76 57
-80.0 152.0 412.0 107 77 58
-80.0 152.0 413.0 107 77 58
-79.0 152.0 413.0 108 78 59
-78.0 152.0 413.0 108 78 59
-78.0 152.0 413.0 108 78 59
-77.0 152.0 413.0 109 79 60
-76.0 152.0 413.0 110 80 61
-76.0 152.0 413.0 108 79 62
-75.0 152.0 413.0 105 78 63
-74.0 152.0 413.0 106 77 60
-74.0 152.0 414.0 110 77 59
-73.0 152.0 414.0 113 79 59
-72.0 152.0 414.0 114 80 58
-72.0 152.0 414.0 113 80 57
-71.0 152.0 414.0 111 79 56
-70.0 152.0 414.0 109 77 55
-70.0 152.0 414.0 108 76 55
-69.0 152.0 414.0 112 80 59
-68.0 152.0 413.0 114 82 61
-68.0 152.0 413.0 113 83 63
-67.0 152.0 413.0 111 82 63
-66.0 152.0 413.0 102 76 57
-66.0 152.0 413.0 96 72 54
-65.0 152.0 413.0 83 60 49
-64.0 152.0 413.0 109 88 85
-64.0 152.0 413.0 146 125 123
-63.0 152.0 413.0 161 141 139
-62.0 152.0 412.0 153 133 132
-61.0 152.0 412.0 155 135 135
-61.0 151.0 411.0 158 138 138
-60.0 151.0 411.0 153 133 133
-59.0 151.0 411.0 151 131 132
-59.0 151.0 411.0 153 132 135
-58.0 151.0 411.0 149 130 134
-57.0 151.0 411.0 149 131 137
-57.0 151.0 411.0 141 122 130
-56.0 151.0 411.0 149 130 139
-55.0 151.0 411.0 149 130 139
-55.0 151.0 410.0 148 129 138
-54.0 151.0 411.0 145 128 134
-53.0 151.0 411.0 142 125 129
-53.0 151.0 411.0 140 123 126
-52.0 151.0 410.0 140 123 125
-51.0 151.0 409.0 141 124 126
-50.0 151.0 409.0 143 125 127
-50.0 151.0 409.0 144 126 128
-49.0 151.0 409.0 143 125 127
-48.0 151.0 409.0 142 124 126
-48.0 151.0 409.0 144 126 128
-47.0 151.0 409.0 145 127 129
-46.0 151.0 409.0 144 126 128
-46.0 151.0 410.0 145 126 127
-45.0 151.0 410.0 147 127 127
-45.0 151.0 410.0 148 128 129
-44.0 151.0 411.0 148 127 130
-43.0 151.0 411.0 148 129 132
-43.0 151.0 411.0 147 129 133
-42.0 152.0 412.0 147 129 133
-41.0 152.0 412.0 149 131 135
-41.0 152.0 412.0 151 133 137
-40.0 152.0 412.0 151 133 137
-39.0 152.0 412.0 151 133 137
-39.0 152.0 412.0 152 134 138
-38.0 152.0 412.0 152 134 138
-37.0 152.0 411.0 151 133 137
-37.0 152.0 412.0 152 134 138
-36.0 152.0 412.0 154 136 140
-35.0 152.0 412.0 154 136 140
-35.0 152.0 412.0 154 136 140
-34.0 152.0 413.0 155 137 141
-34.0 152.0 413.0 158 140 144
-33.0 152.0 413.0 159 142 145
-32.0 152.0 413.0 160 143 145
-32.0 153.0 414.0 160 143 146
-31.0 153.0 414.0 161 144 148
-30.0 153.0 414.0 160 143 149
-30.0 153.0 415.0 160 141 150
-29.0 153.0 415.0 161 141 150
-28.0 153.0 415.0 162 141 150
-28.0 153.0 415.0 161 140 147
-27.0 153.0 415.0 163 142 147
-26.0 153.0 416.0 162 140 141
-26.0 153.0 416.0 166 145 142
-25.0 154.0 417.0 169 148 141
-24.0 154.0 417.0 141 120 109
-24.0 154.0 418.0 101 79 65
-23.0 155.0 419.0 90 67 51
-23.0 155.0 419.0 103 76 61
-22.0 155.0 419.0 112 82 67
-21.0 155.0 419.0 111 81 64
-20.0 154.0 418.0 114 84 65
-20.0 154.0 418.0 104 74 53
-19.0 154.0 418.0 109 79 56
-18.0 155.0 419.0 104 74 51
-18.0 155.0 420.0 100 70 47
-17.0 155.0 420.0 108 77 53
-16.0 155.0 420.0 106 74 49
-16.0 155.0 421.0 107 74 48
-15.0 155.0 420.0 107 74 47
-14.0 155.0 420.0 108 75 49
-14.0 155.0 420.0 107 74 49
-13.0 155.0 421.0 107 74 51
-12.0 155.0 421.0 108 76 55
-12.0 155.0 421.0 106 74 52
-11.0 155.0 421.0 106 74 51
-10.0 155.0 421.0 108 75 52
-10.0 156.0 422.0 110 76 54
-9.0 156.0 422.0 111 77 55
-8.0 156.0 422.0 111 77 55
-8.0 156.0 422.0 111 78 55
-7.0 156.0 422.0 109 77 54
-6.0 156.0 422.0 105 73 50
-6.0 156.0 422.0 108 76 53
-5.0 156.0 422.0 110 78 55
-4.0 156.0 422.0 111 79 56
-4.0 155.0 421.0 109 77 54
-3.0 155.0 421.0 109 77 54
-2.0 155.0 421.0 112 80 57
-1.0 155.0 421.0 113 81 58
-1.0 156.0 422.0 111 79 56
0.0 156.0 423.0 109 77 54
1.0 156.0 423.0 110 78 55
1.0 156.0 423.0 111 79 56
2.0 156.0 423.0 111 79 56
3.0 156.0 422.0 111 79 56
3.0 156.0 422.0 110 78 55
4.0 155.0 421.0 109 77 54
5.0 155.0 420.0 109 77 54
5.0 155.0 421.0 112 80 57
6.0 156.0 422.0 112 80 57
7.0 156.0 422.0 111 79 56
7.0 156.0 422.0 111 79 56
8.0 156.0 423.0 110 78 55
9.0 156.0 423.0 110 78 55
9.0 156.0 423.0 110 78 55
10.0 156.0 423.0 109 77 54
11.0 156.0 422.0 112 80 57
11.0 156.0 422.0 113 81 58
12.0 156.0 423.0 112 80 57
13.0 156.0 422.0 110 78 55
14.0 156.0 423.0 111 79 56
14.0 156.0 423.0 112 79 55
15.0 156.0 423.0 112 79 54
16.0 156.0 423.0 112 79 54
16.0 156.0 424.0 111 78 53
17.0 156.0 424.0 111 78 53
18.0 156.0 424.0 113 80 55
18.0 156.0 424.0 115 82 57
19.0 156.0 424.0 114 81 56
20.0 156.0 424.0 112 79 53
20.0 156.0 424.0 110 77 50
21.0 156.0 424.0 108 75 49
22.0 156.0 423.0 108 75 50
23.0 156.0 424.0 108 75 50
23.0 156.0 424.0 108 75 50
24.0 157.0 425.0 110 77 52
25.0 157.0 425.0 111 78 53
25.0 157.0 425.0 111 78 53
26.0 157.0 425.0 112 79 54
27.0 157.0 425.0 113 80 55
27.0 157.0 425.0 112 79 54
28.0 157.0 426.0 111 78 53
29.0 157.0 426.0 109 76 51
30.0 157.0 426.0 109 76 51
30.0 157.0 426.0 110 77 52
31.0 157.0 426.0 111 78 53
32.0 157.0 427.0 111 78 53
32.0 157.0 427.0 112 79 54
33.0 157.0 427.0 114 81 56
34.0 158.0 428.0 113 80 55
34.0 157.0 427.0 112 79 54
35.0 157.0 427.0 112 79 54
36.0 158.0 428.0 113 80 55
37.0 157.0 427.0 112 79 54
37.0 157.0 427.0 112 79 54
38.0 157.0 427.0 113 80 55
39.0 157.0 427.0 111 79 54
39.0 157.0 426.0 110 78 53
40.0 157.0 425.0 110 78 53
40.0 157.0 425.0 111 79 53
41.0 157.0 425.0 111 79 52
42.0 157.0 425.0 111 79 52
43.0 157.0 425.0 111 79 52
43.0 157.0 425.0 112 80 54
44.0 157.0 426.0 112 80 55
45.0 157.0 426.0 112 80 55
45.0 157.0 427.0 111 79 54
46.0 158.0 428.0 112 80 55
47.0 158.0 428.0 112 80 55
48.0 157.0 427.0 111 79 54
48.0 157.0 427.0 112 80 55
49.0 157.0 427.0 113 81 56
50.0 157.0 427.0 110 78 53
50.0 157.0 426.0 110 78 53
51.0 157.0 426.0 109 77 52
52.0 157.0 427.0 110 78 53
52.0 157.0 427.0 109 77 52
53.0 158.0 428.0 110 78 53
54.0 158.0 428.0 112 80 55
55.0 158.0 428.0 111 79 54
55.0 158.0 429.0 110 78 53
56.0 158.0 429.0 110 78 54
57.0 158.0 429.0 111 79 56
57.0 158.0 429.0 111 79 56
58.0 158.0 429.0 110 78 55
59.0 158.0 429.0 111 79 55
59.0 158.0 428.0 112 80 55
60.0 158.0 428.0 112 80 56
61.0 158.0 428.0 114 82 59
61.0 158.0 428.0 114 82 59
62.0 157.0 427.0 113 81 58
63.0 157.0 427.0 112 80 57
64.0 158.0 428.0 112 80 57
64.0 158.0 428.0 111 80 57
65.0 158.0 428.0 110 80 57
65.0 157.0 427.0 111 80 57
66.0 157.0 427.0 112 80 57
67.0 158.0 428.0 112 80 57
68.0 158.0 428.0 111 79 56
69.0 158.0 429.0 109 77 54
69.0 158.0 429.0 110 78 55
70.0 158.0 429.0 110 78 55
71.0 158.0 429.0 110 78 55
71.0 158.0 429.0 109 77 54
72.0 158.0 429.0 109 77 54
73.0 158.0 429.0 111 79 56
73.0 158.0 429.0 112 80 57
74.0 158.0 429.0 113 81 58
75.0 158.0 429.0 112 80 57
75.0 158.0 429.0 111 79 56
76.0 158.0 429.0 110 78 55
77.0 158.0 429.0 110 78 55
78.0 158.0 429.0 111 79 56
78.0 158.0 430.0 112 80 57
79.0 158.0 430.0 112 80 57
80.0 158.0 430.0 112 80 57
80.0 158.0 430.0 112 80 57
81.0 159.0 431.0 112 80 57
82.0 159.0 432.0 112 80 57
83.0 159.0 432.0 112 80 57
84.0 159.0 432.0 115 83 60
84.0 159.0 431.0 115 83 60
85.0 159.0 432.0 114 82 59
86.0 159.0 433.0 113 81 58
87.0 159.0 433.0 113 81 58
87.0 159.0 433.0 112 80 57
88.0 159.0 432.0 111 79 56
89.0 159.0 433.0 111 79 56
89.0 159.0 433.0 113 81 58
90.0 159.0 433.0 113 81 58
91.0 159.0 433.0 111 79 56
91.0 159.0 433.0 110 78 55
92.0 159.0 433.0 111 79 56
93.0 159.0 433.0 111 79 56
93.0 159.0 432.0 111 79 56
94.0 159.0 433.0 112 80 57
95.0 159.0 433.0 111 79 56
95.0 159.0 432.0 110 78 55
96.0 159.0 432.0 111 79 56
97.0 159.0 433.0 111 79 56
98.0 159.0 433.0 111 79 56
98.0 159.0 433.0 114 82 59
99.0 159.0 433.0 114 82 59
100.0 159.0 433.0 111 79 55
101.0 159.0 433.0 113 81 56
101.0 159.0 433.0 114 82 57
102.0 159.0 433.0 113 81 56
103.0 159.0 433.0 113 81 56
103.0 159.0 433.0 115 83 58
104.0 159.0 432.0 115 83 59
104.0 159.0 432.0 114 82 59
105.0 159.0 432.0 114 82 59
106.0 159.0 432.0 113 81 58
107.0 159.0 432.0 113 81 58
107.0 159.0 433.0 114 82 59
108.0 159.0 433.0 114 82 59
109.0 159.0 434.0 115 83 60
110.0 159.0 434.0 114 82 59
110.0 159.0 433.0 113 81 58
111.0 159.0 433.0 112 80 57
112.0 159.0 433.0 114 82 59
112.0 159.0 433.0 114 82 59
113.0 159.0 434.0 114 82 59
114.0 159.0 434.0 114 82 59
115.0 159.0 434.0 112 80 57
